# .PCD v0.7 - Point Cloud Data file format
VERSION 0.7
FIELDS x y z
SIZE 4 4 4
TYPE F F F
COUNT 1 1 1
WIDTH 1017
HEIGHT 1
VIEWPOINT 0 0 0 1 0 0 0
POINTS 1017
DATA ascii
-4.388478448447377 -5.382355988783476 0.9
-4.388478448447377 -5.382355988783476 1.0
-4.388478448447377 -5.382355988783476 1.1
-4.388478448447377 -5.382355988783476 1.2000000000000002
-4.388478448447377 -5.382355988783476 1.3
-4.388478448447377 -5.382355988783476 1.4000000000000001
-4.388478448447377 -5.382355988783476 1.5
-4.388478448447377 -5.382355988783476 1.6
-4.388478448447377 -5.382355988783476 1.7000000000000002
-4.388478448447377 -5.382355988783476 1.8
-4.388478448447377 -5.382355988783476 1.9000000000000001
-4.388478448447377 -5.382355988783476 2.0
-4.388478448447377 -5.382355988783476 2.1
-4.388478448447377 -5.382355988783476 2.2
-4.388478448447377 -5.382355988783476 2.3000000000000003
-4.388478448447377 -5.382355988783476 2.4000000000000004
-4.388478448447377 -5.382355988783476 2.5
-4.388478448447377 -5.382355988783476 2.6
-4.388478448447377 -5.382355988783476 2.7
-4.388478448447377 -5.382355988783476 2.8000000000000003
-4.388478448447377 -5.282355988783476 0.0
-4.388478448447377 -5.282355988783476 0.1
-4.388478448447377 -5.282355988783476 0.2
-4.388478448447377 -5.282355988783476 0.30000000000000004
-4.388478448447377 -5.282355988783476 0.4
-4.388478448447377 -5.282355988783476 0.5
-4.388478448447377 -5.282355988783476 0.6000000000000001
-4.388478448447377 -5.282355988783476 0.7000000000000001
-4.388478448447377 -5.282355988783476 0.8
-4.388478448447377 -5.282355988783476 0.9
-4.388478448447377 -5.282355988783476 1.0
-4.388478448447377 -5.282355988783476 1.1
-4.388478448447377 -5.282355988783476 1.2000000000000002
-4.388478448447377 -5.282355988783476 1.3
-4.388478448447377 -5.282355988783476 1.4000000000000001
-4.388478448447377 -5.282355988783476 1.5
-4.388478448447377 -5.282355988783476 1.6
-4.388478448447377 -5.282355988783476 1.7000000000000002
-4.388478448447377 -5.282355988783476 1.8
-4.388478448447377 -5.282355988783476 1.9000000000000001
-4.388478448447377 -5.282355988783476 2.0
-4.388478448447377 -5.282355988783476 2.1
-4.388478448447377 -5.282355988783476 2.2
-4.388478448447377 -5.282355988783476 2.3000000000000003
-4.388478448447377 -5.282355988783476 2.4000000000000004
-4.388478448447377 -5.282355988783476 2.5
-4.388478448447377 -5.282355988783476 2.6
-4.388478448447377 -5.282355988783476 2.7
-4.388478448447377 -5.282355988783476 2.8000000000000003
-4.388478448447377 -5.182355988783477 0.0
-4.388478448447377 -5.182355988783477 0.1
-4.388478448447377 -5.182355988783477 0.2
-4.388478448447377 -5.182355988783477 0.30000000000000004
-4.388478448447377 -5.182355988783477 0.4
-4.388478448447377 -5.182355988783477 0.5
-4.388478448447377 -5.182355988783477 0.6000000000000001
-4.388478448447377 -5.182355988783477 0.7000000000000001
-4.388478448447377 -5.182355988783477 0.8
-4.388478448447377 -5.182355988783477 0.9
-4.388478448447377 -5.182355988783477 1.0
-4.388478448447377 -5.182355988783477 1.1
-4.388478448447377 -5.182355988783477 1.2000000000000002
-4.388478448447377 -5.182355988783477 1.3
-4.388478448447377 -5.182355988783477 1.4000000000000001
-4.388478448447377 -5.182355988783477 1.5
-4.388478448447377 -5.182355988783477 1.6
-4.388478448447377 -5.182355988783477 1.7000000000000002
-4.388478448447377 -5.182355988783477 1.8
-4.388478448447377 -5.182355988783477 1.9000000000000001
-4.388478448447377 -5.182355988783477 2.0
-4.388478448447377 -5.182355988783477 2.1
-4.388478448447377 -5.182355988783477 2.2
-4.388478448447377 -5.182355988783477 2.3000000000000003
-4.388478448447377 -5.182355988783477 2.4000000000000004
-4.388478448447377 -5.182355988783477 2.5
-4.388478448447377 -5.182355988783477 2.6
-4.388478448447377 -5.182355988783477 2.7
-4.388478448447377 -5.182355988783477 2.8000000000000003
-4.388478448447377 -5.082355988783477 0.0
-4.388478448447377 -5.082355988783477 0.1
-4.388478448447377 -5.082355988783477 0.2
-4.388478448447377 -5.082355988783477 0.30000000000000004
-4.388478448447377 -5.082355988783477 0.4
-4.388478448447377 -5.082355988783477 0.5
-4.388478448447377 -5.082355988783477 0.6000000000000001
-4.388478448447377 -5.082355988783477 0.7000000000000001
-4.388478448447377 -5.082355988783477 0.8
-4.388478448447377 -5.082355988783477 0.9
-4.388478448447377 -5.082355988783477 1.0
-4.388478448447377 -5.082355988783477 1.1
-4.388478448447377 -5.082355988783477 1.2000000000000002
-4.388478448447377 -5.082355988783477 1.3
-4.388478448447377 -5.082355988783477 1.4000000000000001
-4.388478448447377 -5.082355988783477 1.5
-4.388478448447377 -5.082355988783477 1.6
-4.388478448447377 -5.082355988783477 1.7000000000000002
-4.388478448447377 -5.082355988783477 1.8
-4.388478448447377 -5.082355988783477 1.9000000000000001
-4.388478448447377 -5.082355988783477 2.0
-4.388478448447377 -5.082355988783477 2.1
-4.388478448447377 -5.082355988783477 2.2
-4.388478448447377 -5.082355988783477 2.3000000000000003
-4.388478448447377 -5.082355988783477 2.4000000000000004
-4.388478448447377 -5.082355988783477 2.5
-4.388478448447377 -5.082355988783477 2.6
-4.388478448447377 -5.082355988783477 2.7
-4.388478448447377 -5.082355988783477 2.8000000000000003
-4.388478448447377 -4.982355988783477 0.0
-4.388478448447377 -4.982355988783477 0.1
-4.388478448447377 -4.982355988783477 0.2
-4.388478448447377 -4.982355988783477 0.30000000000000004
-4.388478448447377 -4.982355988783477 0.4
-4.388478448447377 -4.982355988783477 0.5
-4.388478448447377 -4.982355988783477 0.6000000000000001
-4.388478448447377 -4.982355988783477 0.7000000000000001
-4.388478448447377 -4.982355988783477 0.8
-4.388478448447377 -4.982355988783477 0.9
-4.388478448447377 -4.982355988783477 1.0
-4.388478448447377 -4.982355988783477 1.1
-4.388478448447377 -4.982355988783477 1.2000000000000002
-4.388478448447377 -4.982355988783477 1.3
-4.388478448447377 -4.982355988783477 1.4000000000000001
-4.388478448447377 -4.982355988783477 1.5
-4.388478448447377 -4.982355988783477 1.6
-4.388478448447377 -4.982355988783477 1.7000000000000002
-4.388478448447377 -4.982355988783477 1.8
-4.388478448447377 -4.982355988783477 1.9000000000000001
-4.388478448447377 -4.982355988783477 2.0
-4.388478448447377 -4.982355988783477 2.1
-4.388478448447377 -4.982355988783477 2.2
-4.388478448447377 -4.982355988783477 2.3000000000000003
-4.388478448447377 -4.982355988783477 2.4000000000000004
-4.388478448447377 -4.982355988783477 2.5
-4.388478448447377 -4.982355988783477 2.6
-4.388478448447377 -4.982355988783477 2.7
-4.388478448447377 -4.982355988783477 2.8000000000000003
-4.2884784484473775 -5.382355988783476 0.0
-4.2884784484473775 -5.382355988783476 0.1
-4.2884784484473775 -5.382355988783476 0.2
-4.2884784484473775 -5.382355988783476 0.30000000000000004
-4.2884784484473775 -5.382355988783476 0.4
-4.2884784484473775 -5.382355988783476 0.5
-4.2884784484473775 -5.382355988783476 0.6000000000000001
-4.2884784484473775 -5.382355988783476 0.7000000000000001
-4.2884784484473775 -5.382355988783476 0.8
-4.2884784484473775 -5.382355988783476 0.9
-4.2884784484473775 -5.382355988783476 1.0
-4.2884784484473775 -5.382355988783476 1.1
-4.2884784484473775 -5.382355988783476 1.2000000000000002
-4.2884784484473775 -5.382355988783476 1.3
-4.2884784484473775 -5.382355988783476 1.4000000000000001
-4.2884784484473775 -5.382355988783476 1.5
-4.2884784484473775 -5.382355988783476 1.6
-4.2884784484473775 -5.382355988783476 1.7000000000000002
-4.2884784484473775 -5.382355988783476 1.8
-4.2884784484473775 -5.382355988783476 1.9000000000000001
-4.2884784484473775 -5.382355988783476 2.0
-4.2884784484473775 -5.382355988783476 2.1
-4.2884784484473775 -5.382355988783476 2.2
-4.2884784484473775 -5.382355988783476 2.3000000000000003
-4.2884784484473775 -5.382355988783476 2.4000000000000004
-4.2884784484473775 -5.382355988783476 2.5
-4.2884784484473775 -5.382355988783476 2.6
-4.2884784484473775 -5.382355988783476 2.7
-4.2884784484473775 -5.382355988783476 2.8000000000000003
-4.2884784484473775 -5.282355988783476 0.0
-4.2884784484473775 -5.282355988783476 0.1
-4.2884784484473775 -5.282355988783476 0.2
-4.2884784484473775 -5.282355988783476 0.30000000000000004
-4.2884784484473775 -5.282355988783476 0.4
-4.2884784484473775 -5.282355988783476 0.5
-4.2884784484473775 -5.282355988783476 0.6000000000000001
-4.2884784484473775 -5.282355988783476 0.7000000000000001
-4.2884784484473775 -5.282355988783476 0.8
-4.2884784484473775 -5.282355988783476 0.9
-4.2884784484473775 -5.282355988783476 1.0
-4.2884784484473775 -5.282355988783476 1.1
-4.2884784484473775 -5.282355988783476 1.2000000000000002
-4.2884784484473775 -5.282355988783476 1.3
-4.2884784484473775 -5.282355988783476 1.4000000000000001
-4.2884784484473775 -5.282355988783476 1.5
-4.2884784484473775 -5.282355988783476 1.6
-4.2884784484473775 -5.282355988783476 1.7000000000000002
-4.2884784484473775 -5.282355988783476 1.8
-4.2884784484473775 -5.282355988783476 1.9000000000000001
-4.2884784484473775 -5.282355988783476 2.0
-4.2884784484473775 -5.282355988783476 2.1
-4.2884784484473775 -5.282355988783476 2.2
-4.2884784484473775 -5.282355988783476 2.3000000000000003
-4.2884784484473775 -5.282355988783476 2.4000000000000004
-4.2884784484473775 -5.282355988783476 2.5
-4.2884784484473775 -5.282355988783476 2.6
-4.2884784484473775 -5.282355988783476 2.7
-4.2884784484473775 -5.282355988783476 2.8000000000000003
-4.2884784484473775 -5.182355988783477 0.0
-4.2884784484473775 -5.182355988783477 0.1
-4.2884784484473775 -5.182355988783477 0.2
-4.2884784484473775 -5.182355988783477 0.30000000000000004
-4.2884784484473775 -5.182355988783477 0.4
-4.2884784484473775 -5.182355988783477 0.5
-4.2884784484473775 -5.182355988783477 0.6000000000000001
-4.2884784484473775 -5.182355988783477 0.7000000000000001
-4.2884784484473775 -5.182355988783477 0.8
-4.2884784484473775 -5.182355988783477 0.9
-4.2884784484473775 -5.182355988783477 1.0
-4.2884784484473775 -5.182355988783477 1.1
-4.2884784484473775 -5.182355988783477 1.2000000000000002
-4.2884784484473775 -5.182355988783477 1.3
-4.2884784484473775 -5.182355988783477 1.4000000000000001
-4.2884784484473775 -5.182355988783477 1.5
-4.2884784484473775 -5.182355988783477 1.6
-4.2884784484473775 -5.182355988783477 1.7000000000000002
-4.2884784484473775 -5.182355988783477 1.8
-4.2884784484473775 -5.182355988783477 1.9000000000000001
-4.2884784484473775 -5.182355988783477 2.0
-4.2884784484473775 -5.182355988783477 2.1
-4.2884784484473775 -5.182355988783477 2.2
-4.2884784484473775 -5.182355988783477 2.3000000000000003
-4.2884784484473775 -5.182355988783477 2.4000000000000004
-4.2884784484473775 -5.182355988783477 2.5
-4.2884784484473775 -5.182355988783477 2.6
-4.2884784484473775 -5.182355988783477 2.7
-4.2884784484473775 -5.182355988783477 2.8000000000000003
-4.2884784484473775 -5.082355988783477 0.0
-4.2884784484473775 -5.082355988783477 0.1
-4.2884784484473775 -5.082355988783477 0.2
-4.2884784484473775 -5.082355988783477 0.30000000000000004
-4.2884784484473775 -5.082355988783477 0.4
-4.2884784484473775 -5.082355988783477 0.5
-4.2884784484473775 -5.082355988783477 0.6000000000000001
-4.2884784484473775 -5.082355988783477 0.7000000000000001
-4.2884784484473775 -5.082355988783477 0.8
-4.2884784484473775 -5.082355988783477 0.9
-4.2884784484473775 -5.082355988783477 1.0
-4.2884784484473775 -5.082355988783477 1.1
-4.2884784484473775 -5.082355988783477 1.2000000000000002
-4.2884784484473775 -5.082355988783477 1.3
-4.2884784484473775 -5.082355988783477 1.4000000000000001
-4.2884784484473775 -5.082355988783477 1.5
-4.2884784484473775 -5.082355988783477 1.6
-4.2884784484473775 -5.082355988783477 1.7000000000000002
-4.2884784484473775 -5.082355988783477 1.8
-4.2884784484473775 -5.082355988783477 1.9000000000000001
-4.2884784484473775 -5.082355988783477 2.0
-4.2884784484473775 -5.082355988783477 2.1
-4.2884784484473775 -5.082355988783477 2.2
-4.2884784484473775 -5.082355988783477 2.3000000000000003
-4.2884784484473775 -5.082355988783477 2.4000000000000004
-4.2884784484473775 -5.082355988783477 2.5
-4.2884784484473775 -5.082355988783477 2.6
-4.2884784484473775 -5.082355988783477 2.7
-4.2884784484473775 -5.082355988783477 2.8000000000000003
-4.2884784484473775 -4.982355988783477 0.0
-4.2884784484473775 -4.982355988783477 0.1
-4.2884784484473775 -4.982355988783477 0.2
-4.2884784484473775 -4.982355988783477 0.30000000000000004
-4.2884784484473775 -4.982355988783477 0.4
-4.2884784484473775 -4.982355988783477 0.5
-4.2884784484473775 -4.982355988783477 0.6000000000000001
-4.2884784484473775 -4.982355988783477 0.7000000000000001
-4.2884784484473775 -4.982355988783477 0.8
-4.2884784484473775 -4.982355988783477 0.9
-4.2884784484473775 -4.982355988783477 1.0
-4.2884784484473775 -4.982355988783477 1.1
-4.2884784484473775 -4.982355988783477 1.2000000000000002
-4.2884784484473775 -4.982355988783477 1.3
-4.2884784484473775 -4.982355988783477 1.4000000000000001
-4.2884784484473775 -4.982355988783477 1.5
-4.2884784484473775 -4.982355988783477 1.6
-4.2884784484473775 -4.982355988783477 1.7000000000000002
-4.2884784484473775 -4.982355988783477 1.8
-4.2884784484473775 -4.982355988783477 1.9000000000000001
-4.2884784484473775 -4.982355988783477 2.0
-4.2884784484473775 -4.982355988783477 2.1
-4.2884784484473775 -4.982355988783477 2.2
-4.2884784484473775 -4.982355988783477 2.3000000000000003
-4.2884784484473775 -4.982355988783477 2.4000000000000004
-4.2884784484473775 -4.982355988783477 2.5
-4.2884784484473775 -4.982355988783477 2.6
-4.2884784484473775 -4.982355988783477 2.7
-4.2884784484473775 -4.982355988783477 2.8000000000000003
-4.188478448447378 -5.382355988783476 0.0
-4.188478448447378 -5.382355988783476 0.1
-4.188478448447378 -5.382355988783476 0.2
-4.188478448447378 -5.382355988783476 0.30000000000000004
-4.188478448447378 -5.382355988783476 0.4
-4.188478448447378 -5.382355988783476 0.5
-4.188478448447378 -5.382355988783476 0.6000000000000001
-4.188478448447378 -5.382355988783476 0.7000000000000001
-4.188478448447378 -5.382355988783476 0.8
-4.188478448447378 -5.382355988783476 0.9
-4.188478448447378 -5.382355988783476 1.0
-4.188478448447378 -5.382355988783476 1.1
-4.188478448447378 -5.382355988783476 1.2000000000000002
-4.188478448447378 -5.382355988783476 1.3
-4.188478448447378 -5.382355988783476 1.4000000000000001
-4.188478448447378 -5.382355988783476 1.5
-4.188478448447378 -5.382355988783476 1.6
-4.188478448447378 -5.382355988783476 1.7000000000000002
-4.188478448447378 -5.382355988783476 1.8
-4.188478448447378 -5.382355988783476 1.9000000000000001
-4.188478448447378 -5.382355988783476 2.0
-4.188478448447378 -5.382355988783476 2.1
-4.188478448447378 -5.382355988783476 2.2
-4.188478448447378 -5.382355988783476 2.3000000000000003
-4.188478448447378 -5.382355988783476 2.4000000000000004
-4.188478448447378 -5.382355988783476 2.5
-4.188478448447378 -5.382355988783476 2.6
-4.188478448447378 -5.382355988783476 2.7
-4.188478448447378 -5.382355988783476 2.8000000000000003
-4.188478448447378 -5.282355988783476 0.0
-4.188478448447378 -5.282355988783476 0.1
-4.188478448447378 -5.282355988783476 0.2
-4.188478448447378 -5.282355988783476 0.30000000000000004
-4.188478448447378 -5.282355988783476 0.4
-4.188478448447378 -5.282355988783476 0.5
-4.188478448447378 -5.282355988783476 0.6000000000000001
-4.188478448447378 -5.282355988783476 0.7000000000000001
-4.188478448447378 -5.282355988783476 0.8
-4.188478448447378 -5.282355988783476 0.9
-4.188478448447378 -5.282355988783476 1.0
-4.188478448447378 -5.282355988783476 1.1
-4.188478448447378 -5.282355988783476 1.2000000000000002
-4.188478448447378 -5.282355988783476 1.3
-4.188478448447378 -5.282355988783476 1.4000000000000001
-4.188478448447378 -5.282355988783476 1.5
-4.188478448447378 -5.282355988783476 1.6
-4.188478448447378 -5.282355988783476 1.7000000000000002
-4.188478448447378 -5.282355988783476 1.8
-4.188478448447378 -5.282355988783476 1.9000000000000001
-4.188478448447378 -5.282355988783476 2.0
-4.188478448447378 -5.282355988783476 2.1
-4.188478448447378 -5.282355988783476 2.2
-4.188478448447378 -5.282355988783476 2.3000000000000003
-4.188478448447378 -5.282355988783476 2.4000000000000004
-4.188478448447378 -5.282355988783476 2.5
-4.188478448447378 -5.282355988783476 2.6
-4.188478448447378 -5.282355988783476 2.7
-4.188478448447378 -5.282355988783476 2.8000000000000003
-4.188478448447378 -5.182355988783477 0.0
-4.188478448447378 -5.182355988783477 0.1
-4.188478448447378 -5.182355988783477 0.2
-4.188478448447378 -5.182355988783477 0.30000000000000004
-4.188478448447378 -5.182355988783477 0.4
-4.188478448447378 -5.182355988783477 0.5
-4.188478448447378 -5.182355988783477 0.6000000000000001
-4.188478448447378 -5.182355988783477 0.7000000000000001
-4.188478448447378 -5.182355988783477 0.8
-4.188478448447378 -5.182355988783477 0.9
-4.188478448447378 -5.182355988783477 1.0
-4.188478448447378 -5.182355988783477 1.1
-4.188478448447378 -5.182355988783477 1.2000000000000002
-4.188478448447378 -5.182355988783477 1.3
-4.188478448447378 -5.182355988783477 1.4000000000000001
-4.188478448447378 -5.182355988783477 1.5
-4.188478448447378 -5.182355988783477 1.6
-4.188478448447378 -5.182355988783477 1.7000000000000002
-4.188478448447378 -5.182355988783477 1.8
-4.188478448447378 -5.182355988783477 1.9000000000000001
-4.188478448447378 -5.182355988783477 2.0
-4.188478448447378 -5.182355988783477 2.1
-4.188478448447378 -5.182355988783477 2.2
-4.188478448447378 -5.182355988783477 2.3000000000000003
-4.188478448447378 -5.182355988783477 2.4000000000000004
-4.188478448447378 -5.182355988783477 2.5
-4.188478448447378 -5.182355988783477 2.6
-4.188478448447378 -5.182355988783477 2.7
-4.188478448447378 -5.182355988783477 2.8000000000000003
-4.188478448447378 -5.082355988783477 0.0
-4.188478448447378 -5.082355988783477 0.1
-4.188478448447378 -5.082355988783477 0.2
-4.188478448447378 -5.082355988783477 0.30000000000000004
-4.188478448447378 -5.082355988783477 0.4
-4.188478448447378 -5.082355988783477 0.5
-4.188478448447378 -5.082355988783477 0.6000000000000001
-4.188478448447378 -5.082355988783477 0.7000000000000001
-4.188478448447378 -5.082355988783477 0.8
-4.188478448447378 -5.082355988783477 0.9
-4.188478448447378 -5.082355988783477 1.0
-4.188478448447378 -5.082355988783477 1.1
-4.188478448447378 -5.082355988783477 1.2000000000000002
-4.188478448447378 -5.082355988783477 1.3
-4.188478448447378 -5.082355988783477 1.4000000000000001
-4.188478448447378 -5.082355988783477 1.5
-4.188478448447378 -5.082355988783477 1.6
-4.188478448447378 -5.082355988783477 1.7000000000000002
-4.188478448447378 -5.082355988783477 1.8
-4.188478448447378 -5.082355988783477 1.9000000000000001
-4.188478448447378 -5.082355988783477 2.0
-4.188478448447378 -5.082355988783477 2.1
-4.188478448447378 -5.082355988783477 2.2
-4.188478448447378 -5.082355988783477 2.3000000000000003
-4.188478448447378 -5.082355988783477 2.4000000000000004
-4.188478448447378 -5.082355988783477 2.5
-4.188478448447378 -5.082355988783477 2.6
-4.188478448447378 -5.082355988783477 2.7
-4.188478448447378 -5.082355988783477 2.8000000000000003
-4.188478448447378 -4.982355988783477 0.0
-4.188478448447378 -4.982355988783477 0.1
-4.188478448447378 -4.982355988783477 0.2
-4.188478448447378 -4.982355988783477 0.30000000000000004
-4.188478448447378 -4.982355988783477 0.4
-4.188478448447378 -4.982355988783477 0.5
-4.188478448447378 -4.982355988783477 0.6000000000000001
-4.188478448447378 -4.982355988783477 0.7000000000000001
-4.188478448447378 -4.982355988783477 0.8
-4.188478448447378 -4.982355988783477 0.9
-4.188478448447378 -4.982355988783477 1.0
-4.188478448447378 -4.982355988783477 1.1
-4.188478448447378 -4.982355988783477 1.2000000000000002
-4.188478448447378 -4.982355988783477 1.3
-4.188478448447378 -4.982355988783477 1.4000000000000001
-4.188478448447378 -4.982355988783477 1.5
-4.188478448447378 -4.982355988783477 1.6
-4.188478448447378 -4.982355988783477 1.7000000000000002
-4.188478448447378 -4.982355988783477 1.8
-4.188478448447378 -4.982355988783477 1.9000000000000001
-4.188478448447378 -4.982355988783477 2.0
-4.188478448447378 -4.982355988783477 2.1
-4.188478448447378 -4.982355988783477 2.2
-4.188478448447378 -4.982355988783477 2.3000000000000003
-4.188478448447378 -4.982355988783477 2.4000000000000004
-4.188478448447378 -4.982355988783477 2.5
-4.188478448447378 -4.982355988783477 2.6
-4.188478448447378 -4.982355988783477 2.7
-4.188478448447378 -4.982355988783477 2.8000000000000003
-4.088478448447378 -5.382355988783476 0.0
-4.088478448447378 -5.382355988783476 0.1
-4.088478448447378 -5.382355988783476 0.2
-4.088478448447378 -5.382355988783476 0.30000000000000004
-4.088478448447378 -5.382355988783476 0.4
-4.088478448447378 -5.382355988783476 0.5
-4.088478448447378 -5.382355988783476 0.6000000000000001
-4.088478448447378 -5.382355988783476 0.7000000000000001
-4.088478448447378 -5.382355988783476 0.8
-4.088478448447378 -5.382355988783476 0.9
-4.088478448447378 -5.382355988783476 1.0
-4.088478448447378 -5.382355988783476 1.1
-4.088478448447378 -5.382355988783476 1.2000000000000002
-4.088478448447378 -5.382355988783476 1.3
-4.088478448447378 -5.382355988783476 1.4000000000000001
-4.088478448447378 -5.382355988783476 1.5
-4.088478448447378 -5.382355988783476 1.6
-4.088478448447378 -5.382355988783476 1.7000000000000002
-4.088478448447378 -5.382355988783476 1.8
-4.088478448447378 -5.382355988783476 1.9000000000000001
-4.088478448447378 -5.382355988783476 2.0
-4.088478448447378 -5.382355988783476 2.1
-4.088478448447378 -5.382355988783476 2.2
-4.088478448447378 -5.382355988783476 2.3000000000000003
-4.088478448447378 -5.382355988783476 2.4000000000000004
-4.088478448447378 -5.382355988783476 2.5
-4.088478448447378 -5.382355988783476 2.6
-4.088478448447378 -5.382355988783476 2.7
-4.088478448447378 -5.382355988783476 2.8000000000000003
-4.088478448447378 -5.282355988783476 0.0
-4.088478448447378 -5.282355988783476 0.1
-4.088478448447378 -5.282355988783476 0.2
-4.088478448447378 -5.282355988783476 0.30000000000000004
-4.088478448447378 -5.282355988783476 0.4
-4.088478448447378 -5.282355988783476 0.5
-4.088478448447378 -5.282355988783476 0.6000000000000001
-4.088478448447378 -5.282355988783476 0.7000000000000001
-4.088478448447378 -5.282355988783476 0.8
-4.088478448447378 -5.282355988783476 0.9
-4.088478448447378 -5.282355988783476 1.0
-4.088478448447378 -5.282355988783476 1.1
-4.088478448447378 -5.282355988783476 1.2000000000000002
-4.088478448447378 -5.282355988783476 1.3
-4.088478448447378 -5.282355988783476 1.4000000000000001
-4.088478448447378 -5.282355988783476 1.5
-4.088478448447378 -5.282355988783476 1.6
-4.088478448447378 -5.282355988783476 1.7000000000000002
-4.088478448447378 -5.282355988783476 1.8
-4.088478448447378 -5.282355988783476 1.9000000000000001
-4.088478448447378 -5.282355988783476 2.0
-4.088478448447378 -5.282355988783476 2.1
-4.088478448447378 -5.282355988783476 2.2
-4.088478448447378 -5.282355988783476 2.3000000000000003
-4.088478448447378 -5.282355988783476 2.4000000000000004
-4.088478448447378 -5.282355988783476 2.5
-4.088478448447378 -5.282355988783476 2.6
-4.088478448447378 -5.282355988783476 2.7
-4.088478448447378 -5.282355988783476 2.8000000000000003
-4.088478448447378 -5.182355988783477 0.0
-4.088478448447378 -5.182355988783477 0.1
-4.088478448447378 -5.182355988783477 0.2
-4.088478448447378 -5.182355988783477 0.30000000000000004
-4.088478448447378 -5.182355988783477 0.4
-4.088478448447378 -5.182355988783477 0.5
-4.088478448447378 -5.182355988783477 0.6000000000000001
-4.088478448447378 -5.182355988783477 0.7000000000000001
-4.088478448447378 -5.182355988783477 0.8
-4.088478448447378 -5.182355988783477 0.9
-4.088478448447378 -5.182355988783477 1.0
-4.088478448447378 -5.182355988783477 1.1
-4.088478448447378 -5.182355988783477 1.2000000000000002
-4.088478448447378 -5.182355988783477 1.3
-4.088478448447378 -5.182355988783477 1.4000000000000001
-4.088478448447378 -5.182355988783477 1.5
-4.088478448447378 -5.182355988783477 1.6
-4.088478448447378 -5.182355988783477 1.7000000000000002
-4.088478448447378 -5.182355988783477 1.8
-4.088478448447378 -5.182355988783477 1.9000000000000001
-4.088478448447378 -5.182355988783477 2.0
-4.088478448447378 -5.182355988783477 2.1
-4.088478448447378 -5.182355988783477 2.2
-4.088478448447378 -5.182355988783477 2.3000000000000003
-4.088478448447378 -5.182355988783477 2.4000000000000004
-4.088478448447378 -5.182355988783477 2.5
-4.088478448447378 -5.182355988783477 2.6
-4.088478448447378 -5.182355988783477 2.7
-4.088478448447378 -5.182355988783477 2.8000000000000003
-4.088478448447378 -5.082355988783477 0.0
-4.088478448447378 -5.082355988783477 0.1
-4.088478448447378 -5.082355988783477 0.2
-4.088478448447378 -5.082355988783477 0.30000000000000004
-4.088478448447378 -5.082355988783477 0.4
-4.088478448447378 -5.082355988783477 0.5
-4.088478448447378 -5.082355988783477 0.6000000000000001
-4.088478448447378 -5.082355988783477 0.7000000000000001
-4.088478448447378 -5.082355988783477 0.8
-4.088478448447378 -5.082355988783477 0.9
-4.088478448447378 -5.082355988783477 1.0
-4.088478448447378 -5.082355988783477 1.1
-4.088478448447378 -5.082355988783477 1.2000000000000002
-4.088478448447378 -5.082355988783477 1.3
-4.088478448447378 -5.082355988783477 1.4000000000000001
-4.088478448447378 -5.082355988783477 1.5
-4.088478448447378 -5.082355988783477 1.6
-4.088478448447378 -5.082355988783477 1.7000000000000002
-4.088478448447378 -5.082355988783477 1.8
-4.088478448447378 -5.082355988783477 1.9000000000000001
-4.088478448447378 -5.082355988783477 2.0
-4.088478448447378 -5.082355988783477 2.1
-4.088478448447378 -5.082355988783477 2.2
-4.088478448447378 -5.082355988783477 2.3000000000000003
-4.088478448447378 -5.082355988783477 2.4000000000000004
-4.088478448447378 -5.082355988783477 2.5
-4.088478448447378 -5.082355988783477 2.6
-4.088478448447378 -5.082355988783477 2.7
-4.088478448447378 -5.082355988783477 2.8000000000000003
-4.088478448447378 -4.982355988783477 0.0
-4.088478448447378 -4.982355988783477 0.1
-4.088478448447378 -4.982355988783477 0.2
-4.088478448447378 -4.982355988783477 0.30000000000000004
-4.088478448447378 -4.982355988783477 0.4
-4.088478448447378 -4.982355988783477 0.5
-4.088478448447378 -4.982355988783477 0.6000000000000001
-4.088478448447378 -4.982355988783477 0.7000000000000001
-4.088478448447378 -4.982355988783477 0.8
-4.088478448447378 -4.982355988783477 0.9
-4.088478448447378 -4.982355988783477 1.0
-4.088478448447378 -4.982355988783477 1.1
-4.088478448447378 -4.982355988783477 1.2000000000000002
-4.088478448447378 -4.982355988783477 1.3
-4.088478448447378 -4.982355988783477 1.4000000000000001
-4.088478448447378 -4.982355988783477 1.5
-4.088478448447378 -4.982355988783477 1.6
-4.088478448447378 -4.982355988783477 1.7000000000000002
-4.088478448447378 -4.982355988783477 1.8
-4.088478448447378 -4.982355988783477 1.9000000000000001
-4.088478448447378 -4.982355988783477 2.0
-4.088478448447378 -4.982355988783477 2.1
-4.088478448447378 -4.982355988783477 2.2
-4.088478448447378 -4.982355988783477 2.3000000000000003
-4.088478448447378 -4.982355988783477 2.4000000000000004
-4.088478448447378 -4.982355988783477 2.5
-4.088478448447378 -4.982355988783477 2.6
-4.088478448447378 -4.982355988783477 2.7
-4.088478448447378 -4.982355988783477 2.8000000000000003
-3.208573925657221 4.194664310732217 0.0
-3.208573925657221 4.194664310732217 0.1
-3.208573925657221 4.194664310732217 0.2
-3.208573925657221 4.194664310732217 0.30000000000000004
-3.208573925657221 4.194664310732217 0.4
-3.208573925657221 4.194664310732217 0.5
-3.208573925657221 4.194664310732217 0.6000000000000001
-3.208573925657221 4.194664310732217 0.7000000000000001
-3.208573925657221 4.194664310732217 0.8
-3.208573925657221 4.194664310732217 0.9
-3.208573925657221 4.194664310732217 1.0
-3.208573925657221 4.194664310732217 1.1
-3.208573925657221 4.194664310732217 1.2000000000000002
-3.208573925657221 4.194664310732217 1.3
-3.208573925657221 4.194664310732217 1.4000000000000001
-3.208573925657221 4.194664310732217 1.5
-3.208573925657221 4.194664310732217 1.6
-3.208573925657221 4.194664310732217 1.7000000000000002
-3.208573925657221 4.194664310732217 1.8
-3.208573925657221 4.194664310732217 1.9000000000000001
-3.208573925657221 4.194664310732217 2.0
-3.208573925657221 4.194664310732217 2.1
-3.208573925657221 4.194664310732217 2.2
-3.208573925657221 4.194664310732217 2.3000000000000003
-3.208573925657221 4.194664310732217 2.4000000000000004
-3.208573925657221 4.194664310732217 2.5
-3.208573925657221 4.194664310732217 2.6
-3.208573925657221 4.194664310732217 2.7
-3.208573925657221 4.194664310732217 2.8000000000000003
-3.208573925657221 4.194664310732217 2.9000000000000004
-3.208573925657221 4.194664310732217 3.0
-3.208573925657221 4.194664310732217 3.1
-3.208573925657221 4.194664310732217 3.2
-3.208573925657221 4.194664310732217 3.3000000000000003
-3.208573925657221 4.194664310732217 3.4000000000000004
-3.208573925657221 4.194664310732217 3.5
-3.208573925657221 4.194664310732217 3.6
-3.208573925657221 4.194664310732217 3.7
-3.208573925657221 4.294664310732217 0.0
-3.208573925657221 4.294664310732217 0.1
-3.208573925657221 4.294664310732217 0.2
-3.208573925657221 4.294664310732217 0.30000000000000004
-3.208573925657221 4.294664310732217 0.4
-3.208573925657221 4.294664310732217 0.5
-3.208573925657221 4.294664310732217 0.6000000000000001
-3.208573925657221 4.294664310732217 0.7000000000000001
-3.208573925657221 4.294664310732217 0.8
-3.208573925657221 4.294664310732217 0.9
-3.208573925657221 4.294664310732217 1.0
-3.208573925657221 4.294664310732217 1.1
-3.208573925657221 4.294664310732217 1.2000000000000002
-3.208573925657221 4.294664310732217 1.3
-3.208573925657221 4.294664310732217 1.4000000000000001
-3.208573925657221 4.294664310732217 1.5
-3.208573925657221 4.294664310732217 1.6
-3.208573925657221 4.294664310732217 1.7000000000000002
-3.208573925657221 4.294664310732217 1.8
-3.208573925657221 4.294664310732217 1.9000000000000001
-3.208573925657221 4.294664310732217 2.0
-3.208573925657221 4.294664310732217 2.1
-3.208573925657221 4.294664310732217 2.2
-3.208573925657221 4.294664310732217 2.3000000000000003
-3.208573925657221 4.294664310732217 2.4000000000000004
-3.208573925657221 4.294664310732217 2.5
-3.208573925657221 4.294664310732217 2.6
-3.208573925657221 4.294664310732217 2.7
-3.208573925657221 4.294664310732217 2.8000000000000003
-3.208573925657221 4.294664310732217 2.9000000000000004
-3.208573925657221 4.294664310732217 3.0
-3.208573925657221 4.294664310732217 3.1
-3.208573925657221 4.294664310732217 3.2
-3.208573925657221 4.294664310732217 3.3000000000000003
-3.208573925657221 4.294664310732217 3.4000000000000004
-3.208573925657221 4.294664310732217 3.5
-3.208573925657221 4.294664310732217 3.6
-3.208573925657221 4.294664310732217 3.7
-3.208573925657221 4.3946643107322165 0.0
-3.208573925657221 4.3946643107322165 0.1
-3.208573925657221 4.3946643107322165 0.2
-3.208573925657221 4.3946643107322165 0.30000000000000004
-3.208573925657221 4.3946643107322165 0.4
-3.208573925657221 4.3946643107322165 0.5
-3.208573925657221 4.3946643107322165 0.6000000000000001
-3.208573925657221 4.3946643107322165 0.7000000000000001
-3.208573925657221 4.3946643107322165 0.8
-3.208573925657221 4.3946643107322165 0.9
-3.208573925657221 4.3946643107322165 1.0
-3.208573925657221 4.3946643107322165 1.1
-3.208573925657221 4.3946643107322165 1.2000000000000002
-3.208573925657221 4.3946643107322165 1.3
-3.208573925657221 4.3946643107322165 1.4000000000000001
-3.208573925657221 4.3946643107322165 1.5
-3.208573925657221 4.3946643107322165 1.6
-3.208573925657221 4.3946643107322165 1.7000000000000002
-3.208573925657221 4.3946643107322165 1.8
-3.208573925657221 4.3946643107322165 1.9000000000000001
-3.208573925657221 4.3946643107322165 2.0
-3.208573925657221 4.3946643107322165 2.1
-3.208573925657221 4.3946643107322165 2.2
-3.208573925657221 4.3946643107322165 2.3000000000000003
-3.208573925657221 4.3946643107322165 2.4000000000000004
-3.208573925657221 4.3946643107322165 2.5
-3.208573925657221 4.3946643107322165 2.6
-3.208573925657221 4.3946643107322165 2.7
-3.208573925657221 4.3946643107322165 2.8000000000000003
-3.208573925657221 4.3946643107322165 2.9000000000000004
-3.208573925657221 4.3946643107322165 3.0
-3.208573925657221 4.3946643107322165 3.1
-3.208573925657221 4.3946643107322165 3.2
-3.208573925657221 4.3946643107322165 3.3000000000000003
-3.208573925657221 4.3946643107322165 3.4000000000000004
-3.208573925657221 4.3946643107322165 3.5
-3.208573925657221 4.3946643107322165 3.6
-3.208573925657221 4.3946643107322165 3.7
-3.208573925657221 4.494664310732216 0.0
-3.208573925657221 4.494664310732216 0.1
-3.208573925657221 4.494664310732216 0.2
-3.208573925657221 4.494664310732216 0.30000000000000004
-3.208573925657221 4.494664310732216 0.4
-3.208573925657221 4.494664310732216 0.5
-3.208573925657221 4.494664310732216 0.6000000000000001
-3.208573925657221 4.494664310732216 0.7000000000000001
-3.208573925657221 4.494664310732216 0.8
-3.208573925657221 4.494664310732216 0.9
-3.208573925657221 4.494664310732216 1.0
-3.208573925657221 4.494664310732216 1.1
-3.208573925657221 4.494664310732216 1.2000000000000002
-3.208573925657221 4.494664310732216 1.3
-3.208573925657221 4.494664310732216 1.4000000000000001
-3.208573925657221 4.494664310732216 1.5
-3.208573925657221 4.494664310732216 1.6
-3.208573925657221 4.494664310732216 1.7000000000000002
-3.208573925657221 4.494664310732216 1.8
-3.208573925657221 4.494664310732216 1.9000000000000001
-3.208573925657221 4.494664310732216 2.0
-3.208573925657221 4.494664310732216 2.1
-3.208573925657221 4.494664310732216 2.2
-3.208573925657221 4.494664310732216 2.3000000000000003
-3.208573925657221 4.494664310732216 2.4000000000000004
-3.208573925657221 4.494664310732216 2.5
-3.208573925657221 4.494664310732216 2.6
-3.208573925657221 4.494664310732216 2.7
-3.208573925657221 4.494664310732216 2.8000000000000003
-3.208573925657221 4.494664310732216 2.9000000000000004
-3.208573925657221 4.494664310732216 3.0
-3.208573925657221 4.494664310732216 3.1
-3.208573925657221 4.494664310732216 3.2
-3.208573925657221 4.494664310732216 3.3000000000000003
-3.208573925657221 4.494664310732216 3.4000000000000004
-3.208573925657221 4.494664310732216 3.5
-3.208573925657221 4.494664310732216 3.6
-3.208573925657221 4.494664310732216 3.7
-3.208573925657221 4.594664310732216 0.0
-3.208573925657221 4.594664310732216 0.1
-3.208573925657221 4.594664310732216 0.2
-3.208573925657221 4.594664310732216 0.30000000000000004
-3.208573925657221 4.594664310732216 0.4
-3.208573925657221 4.594664310732216 0.5
-3.208573925657221 4.594664310732216 0.6000000000000001
-3.208573925657221 4.594664310732216 0.7000000000000001
-3.208573925657221 4.594664310732216 0.8
-3.208573925657221 4.594664310732216 0.9
-3.208573925657221 4.594664310732216 1.0
-3.208573925657221 4.594664310732216 1.1
-3.208573925657221 4.594664310732216 1.2000000000000002
-3.208573925657221 4.594664310732216 1.3
-3.208573925657221 4.594664310732216 1.4000000000000001
-3.208573925657221 4.594664310732216 1.5
-3.208573925657221 4.594664310732216 1.6
-3.208573925657221 4.594664310732216 1.7000000000000002
-3.208573925657221 4.594664310732216 1.8
-3.208573925657221 4.594664310732216 1.9000000000000001
-3.208573925657221 4.594664310732216 2.0
-3.208573925657221 4.594664310732216 2.1
-3.208573925657221 4.594664310732216 2.2
-3.208573925657221 4.594664310732216 2.3000000000000003
-3.208573925657221 4.594664310732216 2.4000000000000004
-3.208573925657221 4.594664310732216 2.5
-3.208573925657221 4.594664310732216 2.6
-3.208573925657221 4.594664310732216 2.7
-3.208573925657221 4.594664310732216 2.8000000000000003
-3.208573925657221 4.594664310732216 2.9000000000000004
-3.208573925657221 4.594664310732216 3.0
-3.208573925657221 4.594664310732216 3.1
-3.208573925657221 4.594664310732216 3.2
-3.208573925657221 4.594664310732216 3.3000000000000003
-3.208573925657221 4.594664310732216 3.4000000000000004
-3.208573925657221 4.594664310732216 3.5
-3.208573925657221 4.594664310732216 3.6
-3.208573925657221 4.594664310732216 3.7
-3.208573925657221 4.6946643107322155 0.0
-3.208573925657221 4.6946643107322155 0.1
-3.208573925657221 4.6946643107322155 0.2
-3.208573925657221 4.6946643107322155 0.30000000000000004
-3.208573925657221 4.6946643107322155 0.4
-3.208573925657221 4.6946643107322155 0.5
-3.208573925657221 4.6946643107322155 0.6000000000000001
-3.208573925657221 4.6946643107322155 0.7000000000000001
-3.208573925657221 4.6946643107322155 0.8
-3.208573925657221 4.6946643107322155 0.9
-3.208573925657221 4.6946643107322155 1.0
-3.208573925657221 4.6946643107322155 1.1
-3.208573925657221 4.6946643107322155 1.2000000000000002
-3.208573925657221 4.6946643107322155 1.3
-3.208573925657221 4.6946643107322155 1.4000000000000001
-3.208573925657221 4.6946643107322155 1.5
-3.208573925657221 4.6946643107322155 1.6
-3.208573925657221 4.6946643107322155 1.7000000000000002
-3.208573925657221 4.6946643107322155 1.8
-3.208573925657221 4.6946643107322155 1.9000000000000001
-3.208573925657221 4.6946643107322155 2.0
-3.208573925657221 4.6946643107322155 2.1
-3.208573925657221 4.6946643107322155 2.2
-3.208573925657221 4.6946643107322155 2.3000000000000003
-3.208573925657221 4.6946643107322155 2.4000000000000004
-3.208573925657221 4.6946643107322155 2.5
-3.208573925657221 4.6946643107322155 2.6
-3.208573925657221 4.6946643107322155 2.7
-3.208573925657221 4.6946643107322155 2.8000000000000003
-3.208573925657221 4.6946643107322155 2.9000000000000004
-3.208573925657221 4.6946643107322155 3.0
-3.208573925657221 4.6946643107322155 3.1
-3.208573925657221 4.6946643107322155 3.2
-3.208573925657221 4.6946643107322155 3.3000000000000003
-3.208573925657221 4.6946643107322155 3.4000000000000004
-3.208573925657221 4.6946643107322155 3.5
-3.208573925657221 4.6946643107322155 3.6
-3.208573925657221 4.6946643107322155 3.7
-3.108573925657221 4.194664310732217 0.0
-3.108573925657221 4.194664310732217 0.1
-3.108573925657221 4.194664310732217 0.2
-3.108573925657221 4.194664310732217 0.30000000000000004
-3.108573925657221 4.194664310732217 0.4
-3.108573925657221 4.194664310732217 0.5
-3.108573925657221 4.194664310732217 0.6000000000000001
-3.108573925657221 4.194664310732217 0.7000000000000001
-3.108573925657221 4.194664310732217 0.8
-3.108573925657221 4.194664310732217 0.9
-3.108573925657221 4.194664310732217 1.0
-3.108573925657221 4.194664310732217 1.1
-3.108573925657221 4.194664310732217 1.2000000000000002
-3.108573925657221 4.194664310732217 1.3
-3.108573925657221 4.194664310732217 1.4000000000000001
-3.108573925657221 4.194664310732217 1.5
-3.108573925657221 4.194664310732217 1.6
-3.108573925657221 4.194664310732217 1.7000000000000002
-3.108573925657221 4.194664310732217 1.8
-3.108573925657221 4.194664310732217 1.9000000000000001
-3.108573925657221 4.194664310732217 2.0
-3.108573925657221 4.194664310732217 2.1
-3.108573925657221 4.194664310732217 2.2
-3.108573925657221 4.194664310732217 2.3000000000000003
-3.108573925657221 4.194664310732217 2.4000000000000004
-3.108573925657221 4.194664310732217 2.5
-3.108573925657221 4.194664310732217 2.6
-3.108573925657221 4.194664310732217 2.7
-3.108573925657221 4.194664310732217 2.8000000000000003
-3.108573925657221 4.194664310732217 2.9000000000000004
-3.108573925657221 4.194664310732217 3.0
-3.108573925657221 4.194664310732217 3.1
-3.108573925657221 4.194664310732217 3.2
-3.108573925657221 4.194664310732217 3.3000000000000003
-3.108573925657221 4.194664310732217 3.4000000000000004
-3.108573925657221 4.194664310732217 3.5
-3.108573925657221 4.194664310732217 3.6
-3.108573925657221 4.194664310732217 3.7
-3.108573925657221 4.294664310732217 0.0
-3.108573925657221 4.294664310732217 0.1
-3.108573925657221 4.294664310732217 0.2
-3.108573925657221 4.294664310732217 0.30000000000000004
-3.108573925657221 4.294664310732217 0.4
-3.108573925657221 4.294664310732217 0.5
-3.108573925657221 4.294664310732217 0.6000000000000001
-3.108573925657221 4.294664310732217 0.7000000000000001
-3.108573925657221 4.294664310732217 0.8
-3.108573925657221 4.294664310732217 0.9
-3.108573925657221 4.294664310732217 1.0
-3.108573925657221 4.294664310732217 1.1
-3.108573925657221 4.294664310732217 1.2000000000000002
-3.108573925657221 4.294664310732217 1.3
-3.108573925657221 4.294664310732217 1.4000000000000001
-3.108573925657221 4.294664310732217 1.5
-3.108573925657221 4.294664310732217 1.6
-3.108573925657221 4.294664310732217 1.7000000000000002
-3.108573925657221 4.294664310732217 1.8
-3.108573925657221 4.294664310732217 1.9000000000000001
-3.108573925657221 4.294664310732217 2.0
-3.108573925657221 4.294664310732217 2.1
-3.108573925657221 4.294664310732217 2.2
-3.108573925657221 4.294664310732217 2.3000000000000003
-3.108573925657221 4.294664310732217 2.4000000000000004
-3.108573925657221 4.294664310732217 2.5
-3.108573925657221 4.294664310732217 2.6
-3.108573925657221 4.294664310732217 2.7
-3.108573925657221 4.294664310732217 2.8000000000000003
-3.108573925657221 4.294664310732217 2.9000000000000004
-3.108573925657221 4.294664310732217 3.0
-3.108573925657221 4.294664310732217 3.1
-3.108573925657221 4.294664310732217 3.2
-3.108573925657221 4.294664310732217 3.3000000000000003
-3.108573925657221 4.294664310732217 3.4000000000000004
-3.108573925657221 4.294664310732217 3.5
-3.108573925657221 4.294664310732217 3.6
-3.108573925657221 4.294664310732217 3.7
-3.108573925657221 4.3946643107322165 0.0
-3.108573925657221 4.3946643107322165 0.1
-3.108573925657221 4.3946643107322165 0.2
-3.108573925657221 4.3946643107322165 0.30000000000000004
-3.108573925657221 4.3946643107322165 0.4
-3.108573925657221 4.3946643107322165 0.5
-3.108573925657221 4.3946643107322165 0.6000000000000001
-3.108573925657221 4.3946643107322165 0.7000000000000001
-3.108573925657221 4.3946643107322165 0.8
-3.108573925657221 4.3946643107322165 0.9
-3.108573925657221 4.3946643107322165 1.0
-3.108573925657221 4.3946643107322165 1.1
-3.108573925657221 4.3946643107322165 1.2000000000000002
-3.108573925657221 4.3946643107322165 1.3
-3.108573925657221 4.3946643107322165 1.4000000000000001
-3.108573925657221 4.3946643107322165 1.5
-3.108573925657221 4.3946643107322165 1.6
-3.108573925657221 4.3946643107322165 1.7000000000000002
-3.108573925657221 4.3946643107322165 1.8
-3.108573925657221 4.3946643107322165 1.9000000000000001
-3.108573925657221 4.3946643107322165 2.0
-3.108573925657221 4.3946643107322165 2.1
-3.108573925657221 4.3946643107322165 2.2
-3.108573925657221 4.3946643107322165 2.3000000000000003
-3.108573925657221 4.3946643107322165 2.4000000000000004
-3.108573925657221 4.3946643107322165 2.5
-3.108573925657221 4.3946643107322165 2.6
-3.108573925657221 4.3946643107322165 2.7
-3.108573925657221 4.3946643107322165 2.8000000000000003
-3.108573925657221 4.3946643107322165 2.9000000000000004
-3.108573925657221 4.3946643107322165 3.0
-3.108573925657221 4.3946643107322165 3.1
-3.108573925657221 4.3946643107322165 3.2
-3.108573925657221 4.3946643107322165 3.3000000000000003
-3.108573925657221 4.3946643107322165 3.4000000000000004
-3.108573925657221 4.3946643107322165 3.5
-3.108573925657221 4.3946643107322165 3.6
-3.108573925657221 4.3946643107322165 3.7
-3.108573925657221 4.494664310732216 0.0
-3.108573925657221 4.494664310732216 0.1
-3.108573925657221 4.494664310732216 0.2
-3.108573925657221 4.494664310732216 0.30000000000000004
-3.108573925657221 4.494664310732216 0.4
-3.108573925657221 4.494664310732216 0.5
-3.108573925657221 4.494664310732216 0.6000000000000001
-3.108573925657221 4.494664310732216 0.7000000000000001
-3.108573925657221 4.494664310732216 0.8
-3.108573925657221 4.494664310732216 0.9
-3.108573925657221 4.494664310732216 1.0
-3.108573925657221 4.494664310732216 1.1
-3.108573925657221 4.494664310732216 1.2000000000000002
-3.108573925657221 4.494664310732216 1.3
-3.108573925657221 4.494664310732216 1.4000000000000001
-3.108573925657221 4.494664310732216 1.5
-3.108573925657221 4.494664310732216 1.6
-3.108573925657221 4.494664310732216 1.7000000000000002
-3.108573925657221 4.494664310732216 1.8
-3.108573925657221 4.494664310732216 1.9000000000000001
-3.108573925657221 4.494664310732216 2.0
-3.108573925657221 4.494664310732216 2.1
-3.108573925657221 4.494664310732216 2.2
-3.108573925657221 4.494664310732216 2.3000000000000003
-3.108573925657221 4.494664310732216 2.4000000000000004
-3.108573925657221 4.494664310732216 2.5
-3.108573925657221 4.494664310732216 2.6
-3.108573925657221 4.494664310732216 2.7
-3.108573925657221 4.494664310732216 2.8000000000000003
-3.108573925657221 4.494664310732216 2.9000000000000004
-3.108573925657221 4.494664310732216 3.0
-3.108573925657221 4.494664310732216 3.1
-3.108573925657221 4.494664310732216 3.2
-3.108573925657221 4.494664310732216 3.3000000000000003
-3.108573925657221 4.494664310732216 3.4000000000000004
-3.108573925657221 4.494664310732216 3.5
-3.108573925657221 4.494664310732216 3.6
-3.108573925657221 4.494664310732216 3.7
-3.108573925657221 4.594664310732216 0.0
-3.108573925657221 4.594664310732216 0.1
-3.108573925657221 4.594664310732216 0.2
-3.108573925657221 4.594664310732216 0.30000000000000004
-3.108573925657221 4.594664310732216 0.4
-3.108573925657221 4.594664310732216 0.5
-3.108573925657221 4.594664310732216 0.6000000000000001
-3.108573925657221 4.594664310732216 0.7000000000000001
-3.108573925657221 4.594664310732216 0.8
-3.108573925657221 4.594664310732216 0.9
-3.108573925657221 4.594664310732216 1.0
-3.108573925657221 4.594664310732216 1.1
-3.108573925657221 4.594664310732216 1.2000000000000002
-3.108573925657221 4.594664310732216 1.3
-3.108573925657221 4.594664310732216 1.4000000000000001
-3.108573925657221 4.594664310732216 1.5
-3.108573925657221 4.594664310732216 1.6
-3.108573925657221 4.594664310732216 1.7000000000000002
-3.108573925657221 4.594664310732216 1.8
-3.108573925657221 4.594664310732216 1.9000000000000001
-3.108573925657221 4.594664310732216 2.0
-3.108573925657221 4.594664310732216 2.1
-3.108573925657221 4.594664310732216 2.2
-3.108573925657221 4.594664310732216 2.3000000000000003
-3.108573925657221 4.594664310732216 2.4000000000000004
-3.108573925657221 4.594664310732216 2.5
-3.108573925657221 4.594664310732216 2.6
-3.108573925657221 4.594664310732216 2.7
-3.108573925657221 4.594664310732216 2.8000000000000003
-3.108573925657221 4.594664310732216 2.9000000000000004
-3.108573925657221 4.594664310732216 3.0
-3.108573925657221 4.594664310732216 3.1
-3.108573925657221 4.594664310732216 3.2
-3.108573925657221 4.594664310732216 3.3000000000000003
-3.108573925657221 4.594664310732216 3.4000000000000004
-3.108573925657221 4.594664310732216 3.5
-3.108573925657221 4.594664310732216 3.6
-3.108573925657221 4.594664310732216 3.7
-3.108573925657221 4.6946643107322155 0.0
-3.108573925657221 4.6946643107322155 0.1
-3.108573925657221 4.6946643107322155 0.2
-3.108573925657221 4.6946643107322155 0.30000000000000004
-3.108573925657221 4.6946643107322155 0.4
-3.108573925657221 4.6946643107322155 0.5
-3.108573925657221 4.6946643107322155 0.6000000000000001
-3.108573925657221 4.6946643107322155 0.7000000000000001
-3.108573925657221 4.6946643107322155 0.8
-3.108573925657221 4.6946643107322155 0.9
-3.108573925657221 4.6946643107322155 1.0
-3.108573925657221 4.6946643107322155 1.1
-3.108573925657221 4.6946643107322155 1.2000000000000002
-3.108573925657221 4.6946643107322155 1.3
-3.108573925657221 4.6946643107322155 1.4000000000000001
-3.108573925657221 4.6946643107322155 1.5
-3.108573925657221 4.6946643107322155 1.6
-3.108573925657221 4.6946643107322155 1.7000000000000002
-3.108573925657221 4.6946643107322155 1.8
-3.108573925657221 4.6946643107322155 1.9000000000000001
-3.108573925657221 4.6946643107322155 2.0
-3.108573925657221 4.6946643107322155 2.1
-3.108573925657221 4.6946643107322155 2.2
-3.108573925657221 4.6946643107322155 2.3000000000000003
-3.108573925657221 4.6946643107322155 2.4000000000000004
-3.108573925657221 4.6946643107322155 2.5
-3.108573925657221 4.6946643107322155 2.6
-3.108573925657221 4.6946643107322155 2.7
